ply
		format ascii 1.0
		element vertex 3433
		property float x
		property float y
		property float z
		property uchar red
		property uchar green
		property uchar blue
		end_header
-128067.554688 -364579.187500 101066.015625 0 0 0
-127363.945312 -364579.187500 101066.015625 0 0 0
-126660.335938 -364579.187500 101066.015625 0 0 0
-125956.726562 -364579.187500 101066.015625 0 0 0
-125253.109375 -364579.187500 101066.015625 0 0 0
-124549.500000 -364579.187500 101066.015625 0 0 0
-123845.890625 -364579.187500 101066.015625 0 0 0
-123142.273438 -364579.187500 101066.015625 0 0 0
-122438.664062 -364579.187500 101066.015625 0 0 0
-121735.054688 -364579.187500 101066.015625 0 0 0
-121031.445312 -364579.187500 101066.015625 0 0 0
-120327.828125 -364579.187500 101066.015625 0 0 0
-119624.218750 -364579.187500 101066.015625 0 0 0
-118920.609375 -364579.187500 101066.015625 0 0 0
-118217.000000 -364579.187500 101066.015625 0 0 0
-117513.382812 -364579.187500 101066.015625 0 0 0
-116809.773438 -364579.187500 101066.015625 0 0 0
-116106.164062 -364579.187500 101066.015625 0 0 0
-115402.546875 -364579.187500 101066.015625 0 0 0
-114698.937500 -364579.187500 101066.015625 0 0 0
-159026.468750 -363875.593750 101066.015625 0 0 0
-158322.859375 -363875.593750 101066.015625 0 0 0
-157619.234375 -363875.593750 101066.015625 0 0 0
-156915.625000 -363875.593750 101066.015625 0 0 0
-156212.015625 -363875.593750 101066.015625 0 0 0
-155508.406250 -363875.593750 101066.015625 0 0 0
-154804.796875 -363875.593750 101066.015625 0 0 0
-154101.187500 -363875.593750 101066.015625 0 0 0
-153397.578125 -363875.593750 101066.015625 0 0 0
-152693.953125 -363875.593750 101066.015625 0 0 0
-151990.343750 -363875.593750 101066.015625 0 0 0
-151286.734375 -363875.593750 101066.015625 0 0 0
-150583.125000 -363875.593750 101066.015625 0 0 0
-149879.515625 -363875.593750 101066.015625 0 0 0
-149175.906250 -363875.593750 101066.015625 0 0 0
-148472.296875 -363875.593750 101066.015625 0 0 0
-147768.671875 -363875.593750 101066.015625 0 0 0
-147065.062500 -363875.593750 101066.015625 0 0 0
-146361.453125 -363875.593750 101066.015625 0 0 0
-145657.843750 -363875.593750 101066.015625 0 0 0
-144954.234375 -363875.593750 101066.015625 0 0 0
-144250.625000 -363875.593750 101066.015625 0 0 0
-143547.015625 -363875.593750 101066.015625 0 0 0
-142843.406250 -363875.593750 101066.015625 0 0 0
-142139.781250 -363875.593750 101066.015625 0 0 0
-141436.171875 -363875.593750 101066.015625 0 0 0
-140732.562500 -363875.593750 101066.015625 0 0 0
-140028.953125 -363875.593750 101066.015625 0 0 0
-139325.343750 -363875.593750 101066.015625 0 0 0
-138621.734375 -363875.593750 101066.015625 0 0 0
-137918.125000 -363875.593750 101066.015625 0 0 0
-137214.500000 -363875.593750 101066.015625 0 0 0
-136510.890625 -363875.593750 101066.015625 0 0 0
-135807.281250 -363875.593750 101066.015625 0 0 0
-135103.671875 -363875.593750 101066.015625 0 0 0
-134400.062500 -363875.593750 101066.015625 0 0 0
-133696.453125 -363875.593750 101066.015625 0 0 0
-132992.843750 -363875.593750 101066.015625 0 0 0
-132289.218750 -363875.593750 101066.015625 0 0 0
-131585.609375 -363875.593750 101066.015625 0 0 0
-130882.000000 -363875.593750 101066.015625 0 0 0
-130178.390625 -363875.593750 101066.015625 0 0 0
-129474.781250 -363875.593750 101066.015625 0 0 0
-128771.171875 -363875.593750 101066.015625 0 0 0
-128067.554688 -363875.593750 101066.015625 0 0 0
-127363.945312 -363875.593750 101066.015625 0 0 0
-126660.335938 -363875.593750 101066.015625 0 0 0
-125956.726562 -363875.593750 101066.015625 0 0 0
-125253.109375 -363875.593750 101066.015625 0 0 0
-124549.500000 -363875.593750 101066.015625 0 0 0
-123845.890625 -363875.593750 101066.015625 0 0 0
-123142.273438 -363875.593750 101066.015625 0 0 0
-122438.664062 -363875.593750 101066.015625 0 0 0
-121735.054688 -363875.593750 101066.015625 0 0 0
-121031.445312 -363875.593750 101066.015625 0 0 0
-120327.828125 -363875.593750 101066.015625 0 0 0
-119624.218750 -363875.593750 101066.015625 0 0 0
-118920.609375 -363875.593750 101066.015625 0 0 0
-118217.000000 -363875.593750 101066.015625 0 0 0
-117513.382812 -363875.593750 101066.015625 0 0 0
-116809.773438 -363875.593750 101066.015625 0 0 0
-116106.164062 -363875.593750 101066.015625 0 0 0
-115402.546875 -363875.593750 101066.015625 0 0 0
-114698.937500 -363875.593750 101066.015625 0 0 0
-159026.468750 -363171.968750 101066.015625 0 0 0
-158322.859375 -363171.968750 101066.015625 0 0 0
-157619.234375 -363171.968750 101066.015625 0 0 0
-156915.625000 -363171.968750 101066.015625 0 0 0
-156212.015625 -363171.968750 101066.015625 0 0 0
-155508.406250 -363171.968750 101066.015625 0 0 0
-154804.796875 -363171.968750 101066.015625 0 0 0
-154101.187500 -363171.968750 101066.015625 0 0 0
-153397.578125 -363171.968750 101066.015625 0 0 0
-152693.953125 -363171.968750 101066.015625 0 0 0
-151990.343750 -363171.968750 101066.015625 0 0 0
-151286.734375 -363171.968750 101066.015625 0 0 0
-150583.125000 -363171.968750 101066.015625 0 0 0
-149879.515625 -363171.968750 101066.015625 0 0 0
-149175.906250 -363171.968750 101066.015625 0 0 0
-148472.296875 -363171.968750 101066.015625 0 0 0
-147768.671875 -363171.968750 101066.015625 0 0 0
-147065.062500 -363171.968750 101066.015625 0 0 0
-146361.453125 -363171.968750 101066.015625 0 0 0
-145657.843750 -363171.968750 101066.015625 0 0 0
-144954.234375 -363171.968750 101066.015625 0 0 0
-144250.625000 -363171.968750 101066.015625 0 0 0
-143547.015625 -363171.968750 101066.015625 0 0 0
-142843.406250 -363171.968750 101066.015625 0 0 0
-142139.781250 -363171.968750 101066.015625 0 0 0
-141436.171875 -363171.968750 101066.015625 0 0 0
-140732.562500 -363171.968750 101066.015625 0 0 0
-140028.953125 -363171.968750 101066.015625 0 0 0
-139325.343750 -363171.968750 101066.015625 0 0 0
-138621.734375 -363171.968750 101066.015625 0 0 0
-137918.125000 -363171.968750 101066.015625 0 0 0
-137214.500000 -363171.968750 101066.015625 0 0 0
-136510.890625 -363171.968750 101066.015625 0 0 0
-135807.281250 -363171.968750 101066.015625 0 0 0
-135103.671875 -363171.968750 101066.015625 0 0 0
-134400.062500 -363171.968750 101066.015625 0 0 0
-133696.453125 -363171.968750 101066.015625 0 0 0
-132992.843750 -363171.968750 101066.015625 0 0 0
-132289.218750 -363171.968750 101066.015625 0 0 0
-131585.609375 -363171.968750 101066.015625 0 0 0
-130882.000000 -363171.968750 101066.015625 0 0 0
-130178.390625 -363171.968750 101066.015625 0 0 0
-129474.781250 -363171.968750 101066.015625 0 0 0
-128771.171875 -363171.968750 101066.015625 0 0 0
-128067.554688 -363171.968750 101066.015625 0 0 0
-127363.945312 -363171.968750 101066.015625 0 0 0
-126660.335938 -363171.968750 101066.015625 0 0 0
-125956.726562 -363171.968750 101066.015625 0 0 0
-125253.109375 -363171.968750 101066.015625 0 0 0
-124549.500000 -363171.968750 101066.015625 0 0 0
-123845.890625 -363171.968750 101066.015625 0 0 0
-123142.273438 -363171.968750 101066.015625 0 0 0
-122438.664062 -363171.968750 101066.015625 0 0 0
-121735.054688 -363171.968750 101066.015625 0 0 0
-121031.445312 -363171.968750 101066.015625 0 0 0
-120327.828125 -363171.968750 101066.015625 0 0 0
-119624.218750 -363171.968750 101066.015625 0 0 0
-118920.609375 -363171.968750 101066.015625 0 0 0
-118217.000000 -363171.968750 101066.015625 0 0 0
-117513.382812 -363171.968750 101066.015625 0 0 0
-116809.773438 -363171.968750 101066.015625 0 0 0
-116106.164062 -363171.968750 101066.015625 1 1 1
-115402.546875 -363171.968750 101066.015625 3 3 2
-114698.937500 -363171.968750 101066.015625 5 6 4
-159026.468750 -362468.375000 101066.015625 0 0 0
-158322.859375 -362468.375000 101066.015625 0 0 0
-157619.234375 -362468.375000 101066.015625 0 0 0
-156915.625000 -362468.375000 101066.015625 0 0 0
-156212.015625 -362468.375000 101066.015625 0 0 0
-155508.406250 -362468.375000 101066.015625 0 0 0
-154804.796875 -362468.375000 101066.015625 0 0 0
-154101.187500 -362468.375000 101066.015625 0 0 0
-153397.578125 -362468.375000 101066.015625 0 0 0
-152693.953125 -362468.375000 101066.015625 0 0 0
-151990.343750 -362468.375000 101066.015625 0 0 0
-151286.734375 -362468.375000 101066.015625 0 0 0
-150583.125000 -362468.375000 101066.015625 0 0 0
-149879.515625 -362468.375000 101066.015625 0 0 0
-149175.906250 -362468.375000 101066.015625 0 0 0
-148472.296875 -362468.375000 101066.015625 0 0 0
-147768.671875 -362468.375000 101066.015625 0 0 0
-147065.062500 -362468.375000 101066.015625 0 0 0
-146361.453125 -362468.375000 101066.015625 0 0 0
-145657.843750 -362468.375000 101066.015625 0 0 0
-144954.234375 -362468.375000 101066.015625 0 0 0
-144250.625000 -362468.375000 101066.015625 0 0 0
-143547.015625 -362468.375000 101066.015625 0 0 0
-142843.406250 -362468.375000 101066.015625 0 0 0
-142139.781250 -362468.375000 101066.015625 0 0 0
-141436.171875 -362468.375000 101066.015625 0 0 0
-140732.562500 -362468.375000 101066.015625 0 0 0
-140028.953125 -362468.375000 101066.015625 0 0 0
-139325.343750 -362468.375000 101066.015625 0 0 0
-138621.734375 -362468.375000 101066.015625 0 0 0
-137918.125000 -362468.375000 101066.015625 0 0 0
-137214.500000 -362468.375000 101066.015625 0 0 0
-136510.890625 -362468.375000 101066.015625 0 0 0
-135807.281250 -362468.375000 101066.015625 0 0 0
-135103.671875 -362468.375000 101066.015625 0 0 0
-134400.062500 -362468.375000 101066.015625 0 0 0
-133696.453125 -362468.375000 101066.015625 0 0 0
-132992.843750 -362468.375000 101066.015625 0 0 0
-132289.218750 -362468.375000 101066.015625 0 0 0
-131585.609375 -362468.375000 101066.015625 0 0 0
-130882.000000 -362468.375000 101066.015625 0 0 0
-130178.390625 -362468.375000 101066.015625 0 0 0
-129474.781250 -362468.375000 101066.015625 0 0 0
-128771.171875 -362468.375000 101066.015625 0 0 0
-128067.554688 -362468.375000 101066.015625 0 0 0
-127363.945312 -362468.375000 101066.015625 0 0 0
-126660.335938 -362468.375000 101066.015625 0 0 0
-125956.726562 -362468.375000 101066.015625 0 0 0
-125253.109375 -362468.375000 101066.015625 0 0 0
-124549.500000 -362468.375000 101066.015625 0 0 0
-123845.890625 -362468.375000 101066.015625 0 0 0
-123142.273438 -362468.375000 101066.015625 0 0 0
-122438.664062 -362468.375000 101066.015625 0 0 0
-121735.054688 -362468.375000 101066.015625 0 0 0
-121031.445312 -362468.375000 101066.015625 0 0 0
-120327.828125 -362468.375000 101066.015625 0 0 0
-119624.218750 -362468.375000 101066.015625 0 0 0
-118920.609375 -362468.375000 101066.015625 0 0 0
-118217.000000 -362468.375000 101066.015625 1 2 1
-117513.382812 -362468.375000 101066.015625 3 4 3
-116809.773438 -362468.375000 101066.015625 6 8 6
-116106.164062 -362468.375000 101066.015625 11 13 10
-115402.546875 -362468.375000 101066.015625 16 20 15
-114698.937500 -362468.375000 101066.015625 22 27 21
-159026.468750 -361764.750000 101066.015625 0 0 0
-158322.859375 -361764.750000 101066.015625 0 0 0
-157619.234375 -361764.750000 101066.015625 0 0 0
-156915.625000 -361764.750000 101066.015625 0 0 0
-156212.015625 -361764.750000 101066.015625 0 0 0
-155508.406250 -361764.750000 101066.015625 0 0 0
-154804.796875 -361764.750000 101066.015625 0 0 0
-154101.187500 -361764.750000 101066.015625 0 0 0
-153397.578125 -361764.750000 101066.015625 0 0 0
-152693.953125 -361764.750000 101066.015625 0 0 0
-151990.343750 -361764.750000 101066.015625 0 0 0
-151286.734375 -361764.750000 101066.015625 0 0 0
-150583.125000 -361764.750000 101066.015625 0 0 0
-149879.515625 -361764.750000 101066.015625 0 0 0
-149175.906250 -361764.750000 101066.015625 0 0 0
-148472.296875 -361764.750000 101066.015625 0 0 0
-147768.671875 -361764.750000 101066.015625 0 0 0
-147065.062500 -361764.750000 101066.015625 0 0 0
-146361.453125 -361764.750000 101066.015625 0 0 0
-145657.843750 -361764.750000 101066.015625 0 0 0
-144954.234375 -361764.750000 101066.015625 0 0 0
-144250.625000 -361764.750000 101066.015625 0 0 0
-143547.015625 -361764.750000 101066.015625 0 0 0
-142843.406250 -361764.750000 101066.015625 0 0 0
-142139.781250 -361764.750000 101066.015625 0 0 0
-141436.171875 -361764.750000 101066.015625 0 0 0
-140732.562500 -361764.750000 101066.015625 0 0 0
-140028.953125 -361764.750000 101066.015625 0 0 0
-139325.343750 -361764.750000 101066.015625 0 0 0
-138621.734375 -361764.750000 101066.015625 0 0 0
-137918.125000 -361764.750000 101066.015625 0 0 0
-137214.500000 -361764.750000 101066.015625 0 0 0
-136510.890625 -361764.750000 101066.015625 0 0 0
-135807.281250 -361764.750000 101066.015625 0 0 0
-135103.671875 -361764.750000 101066.015625 0 0 0
-134400.062500 -361764.750000 101066.015625 0 0 0
-133696.453125 -361764.750000 101066.015625 0 0 0
-132992.843750 -361764.750000 101066.015625 0 0 0
-132289.218750 -361764.750000 101066.015625 0 0 0
-131585.609375 -361764.750000 101066.015625 0 0 0
-130882.000000 -361764.750000 101066.015625 0 0 0
-130178.390625 -361764.750000 101066.015625 0 0 0
-129474.781250 -361764.750000 101066.015625 0 0 0
-128771.171875 -361764.750000 101066.015625 0 0 0
-128067.554688 -361764.750000 101066.015625 0 0 0
-127363.945312 -361764.750000 101066.015625 0 0 0
-126660.335938 -361764.750000 101066.015625 0 0 0
-125956.726562 -361764.750000 101066.015625 0 0 0
-125253.109375 -361764.750000 101066.015625 0 0 0
-124549.500000 -361764.750000 101066.015625 0 0 0
-123845.890625 -361764.750000 101066.015625 0 0 0
-123142.273438 -361764.750000 101066.015625 0 0 0
-122438.664062 -361764.750000 101066.015625 0 0 0
-121735.054688 -361764.750000 101066.015625 0 0 0
-121031.445312 -361764.750000 101066.015625 0 0 0
-120327.828125 -361764.750000 101066.015625 1 2 1
-119624.218750 -361764.750000 101066.015625 3 4 3
-118920.609375 -361764.750000 101066.015625 7 9 6
-118217.000000 -361764.750000 101066.015625 12 15 11
-117513.382812 -361764.750000 101066.015625 18 23 18
-116809.773438 -361764.750000 101066.015625 25 30 25
-116106.164062 -361764.750000 101066.015625 31 37 33
-115402.546875 -361764.750000 101066.015625 37 44 41
-114698.937500 -361764.750000 101066.015625 43 50 48
-159026.468750 -361061.125000 101066.015625 0 0 0
-158322.859375 -361061.125000 101066.015625 0 0 0
-157619.234375 -361061.125000 101066.015625 0 0 0
-156915.625000 -361061.125000 101066.015625 0 0 0
-156212.015625 -361061.125000 101066.015625 0 0 0
-155508.406250 -361061.125000 101066.015625 0 0 0
-154804.796875 -361061.125000 101066.015625 0 0 0
-154101.187500 -361061.125000 101066.015625 0 0 0
-153397.578125 -361061.125000 101066.015625 0 0 0
-152693.953125 -361061.125000 101066.015625 0 0 0
-151990.343750 -361061.125000 101066.015625 0 0 0
-151286.734375 -361061.125000 101066.015625 0 0 0
-150583.125000 -361061.125000 101066.015625 0 0 0
-149879.515625 -361061.125000 101066.015625 0 0 0
-149175.906250 -361061.125000 101066.015625 0 0 0
-148472.296875 -361061.125000 101066.015625 0 0 0
-147768.671875 -361061.125000 101066.015625 0 0 0
-147065.062500 -361061.125000 101066.015625 0 0 0
-146361.453125 -361061.125000 101066.015625 0 0 0
-145657.843750 -361061.125000 101066.015625 0 0 0
-144954.234375 -361061.125000 101066.015625 0 0 0
-144250.625000 -361061.125000 101066.015625 0 0 0
-143547.015625 -361061.125000 101066.015625 0 0 0
-142843.406250 -361061.125000 101066.015625 0 0 0
-142139.781250 -361061.125000 101066.015625 0 0 0
-141436.171875 -361061.125000 101066.015625 0 0 0
-140732.562500 -361061.125000 101066.015625 0 0 0
-140028.953125 -361061.125000 101066.015625 0 0 0
-139325.343750 -361061.125000 101066.015625 0 0 0
-138621.734375 -361061.125000 101066.015625 0 0 0
-137918.125000 -361061.125000 101066.015625 0 0 0
-137214.500000 -361061.125000 101066.015625 0 0 0
-136510.890625 -361061.125000 101066.015625 0 0 0
-135807.281250 -361061.125000 101066.015625 0 0 0
-135103.671875 -361061.125000 101066.015625 0 0 0
-134400.062500 -361061.125000 101066.015625 0 0 0
-133696.453125 -361061.125000 101066.015625 0 0 0
-132992.843750 -361061.125000 101066.015625 0 0 0
-132289.218750 -361061.125000 101066.015625 0 0 0
-131585.609375 -361061.125000 101066.015625 0 0 0
-130882.000000 -361061.125000 101066.015625 0 0 0
-130178.390625 -361061.125000 101066.015625 0 0 0
-129474.781250 -361061.125000 101066.015625 0 0 0
-128771.171875 -361061.125000 101066.015625 0 0 0
-128067.554688 -361061.125000 101066.015625 0 0 0
-127363.945312 -361061.125000 101066.015625 0 0 0
-126660.335938 -361061.125000 101066.015625 0 0 0
-125956.726562 -361061.125000 101066.015625 0 0 0
-125253.109375 -361061.125000 101066.015625 0 0 0
-124549.500000 -361061.125000 101066.015625 0 0 0
-123845.890625 -361061.125000 101066.015625 0 0 0
-123142.273438 -361061.125000 101066.015625 0 0 0
-122438.664062 -361061.125000 101066.015625 1 1 1
-121735.054688 -361061.125000 101066.015625 3 4 3
-121031.445312 -361061.125000 101066.015625 7 9 6
-120327.828125 -361061.125000 101066.015625 13 16 12
-119624.218750 -361061.125000 101066.015625 19 24 19
-118920.609375 -361061.125000 101066.015625 26 32 27
-118217.000000 -361061.125000 101066.015625 32 38 34
-117513.382812 -361061.125000 101066.015625 35 42 40
-116809.773438 -361061.125000 101066.015625 37 44 44
-116106.164062 -361061.125000 101066.015625 39 47 47
-115402.546875 -361061.125000 101066.015625 43 51 52
-65542.250000 -206320.656250 57752.007812 46 56 56
-159026.468750 -360357.531250 101066.015625 0 0 0
-158322.859375 -360357.531250 101066.015625 0 0 0
-157619.234375 -360357.531250 101066.015625 0 0 0
-156915.625000 -360357.531250 101066.015625 0 0 0
-156212.015625 -360357.531250 101066.015625 0 0 0
-155508.406250 -360357.531250 101066.015625 0 0 0
-154804.796875 -360357.531250 101066.015625 0 0 0
-154101.187500 -360357.531250 101066.015625 0 0 0
-153397.578125 -360357.531250 101066.015625 0 0 0
-152693.953125 -360357.531250 101066.015625 0 0 0
-151990.343750 -360357.531250 101066.015625 0 0 0
-151286.734375 -360357.531250 101066.015625 0 0 0
-150583.125000 -360357.531250 101066.015625 0 0 0
-149879.515625 -360357.531250 101066.015625 0 0 0
-149175.906250 -360357.531250 101066.015625 0 0 0
-148472.296875 -360357.531250 101066.015625 0 0 0
-147768.671875 -360357.531250 101066.015625 0 0 0
-147065.062500 -360357.531250 101066.015625 0 0 0
-146361.453125 -360357.531250 101066.015625 0 0 0
-145657.843750 -360357.531250 101066.015625 0 0 0
-144954.234375 -360357.531250 101066.015625 0 0 0
-144250.625000 -360357.531250 101066.015625 0 0 0
-143547.015625 -360357.531250 101066.015625 0 0 0
-142843.406250 -360357.531250 101066.015625 0 0 0
-142139.781250 -360357.531250 101066.015625 0 0 0
-141436.171875 -360357.531250 101066.015625 0 0 0
-140732.562500 -360357.531250 101066.015625 0 0 0
-140028.953125 -360357.531250 101066.015625 0 0 0
-139325.343750 -360357.531250 101066.015625 0 0 0
-138621.734375 -360357.531250 101066.015625 0 0 0
-137918.125000 -360357.531250 101066.015625 0 0 0
-137214.500000 -360357.531250 101066.015625 0 0 0
-136510.890625 -360357.531250 101066.015625 0 0 0
-135807.281250 -360357.531250 101066.015625 0 0 0
-135103.671875 -360357.531250 101066.015625 0 0 0
-134400.062500 -360357.531250 101066.015625 0 0 0
-133696.453125 -360357.531250 101066.015625 0 0 0
-132992.843750 -360357.531250 101066.015625 0 0 0
-132289.218750 -360357.531250 101066.015625 0 0 0
-131585.609375 -360357.531250 101066.015625 0 0 0
-130882.000000 -360357.531250 101066.015625 0 0 0
-130178.390625 -360357.531250 101066.015625 0 0 0
-129474.781250 -360357.531250 101066.015625 0 0 0
-128771.171875 -360357.531250 101066.015625 0 0 0
-128067.554688 -360357.531250 101066.015625 0 0 0
-127363.945312 -360357.531250 101066.015625 0 0 0
-126660.335938 -360357.531250 101066.015625 0 0 0
-125956.726562 -360357.531250 101066.015625 0 0 0
-125253.109375 -360357.531250 101066.015625 0 0 0
-124549.500000 -360357.531250 101066.015625 0 1 0
-123845.890625 -360357.531250 101066.015625 2 3 2
-123142.273438 -360357.531250 101066.015625 6 7 5
-122438.664062 -360357.531250 101066.015625 12 14 11
-121735.054688 -360357.531250 101066.015625 19 24 19
-121031.445312 -360357.531250 101066.015625 28 33 29
-120327.828125 -360357.531250 101066.015625 35 41 38
-119624.218750 -360357.531250 101066.015625 38 44 43
-118920.609375 -360357.531250 101066.015625 35 42 42
-118217.000000 -360357.531250 101066.015625 31 38 38
-117513.382812 -360357.531250 101066.015625 30 37 37
-116809.773438 -360357.531250 101066.015625 31 38 38
-116106.164062 -360357.531250 101066.015625 36 44 44
-73857.632812 -230628.812500 64682.250000 44 52 52
-59199.453125 -185990.984375 52163.105469 46 55 54
-159026.468750 -359653.906250 101066.015625 0 0 0
-158322.859375 -359653.906250 101066.015625 0 0 0
-157619.234375 -359653.906250 101066.015625 0 0 0
-156915.625000 -359653.906250 101066.015625 0 0 0
-156212.015625 -359653.906250 101066.015625 0 0 0
-155508.406250 -359653.906250 101066.015625 0 0 0
-154804.796875 -359653.906250 101066.015625 0 0 0
-154101.187500 -359653.906250 101066.015625 0 0 0
-153397.578125 -359653.906250 101066.015625 0 0 0
-152693.953125 -359653.906250 101066.015625 0 0 0
-151990.343750 -359653.906250 101066.015625 0 0 0
-151286.734375 -359653.906250 101066.015625 0 0 0
-150583.125000 -359653.906250 101066.015625 0 0 0
-149879.515625 -359653.906250 101066.015625 0 0 0
-149175.906250 -359653.906250 101066.015625 0 0 0
-148472.296875 -359653.906250 101066.015625 0 0 0
-147768.671875 -359653.906250 101066.015625 0 0 0
-147065.062500 -359653.906250 101066.015625 0 0 0
-146361.453125 -359653.906250 101066.015625 0 0 0
-145657.843750 -359653.906250 101066.015625 0 0 0
-144954.234375 -359653.906250 101066.015625 0 0 0
-144250.625000 -359653.906250 101066.015625 0 0 0
-143547.015625 -359653.906250 101066.015625 0 0 0
-142843.406250 -359653.906250 101066.015625 0 0 0
-142139.781250 -359653.906250 101066.015625 0 0 0
-141436.171875 -359653.906250 101066.015625 0 0 0
-140732.562500 -359653.906250 101066.015625 0 0 0
-140028.953125 -359653.906250 101066.015625 0 0 0
-139325.343750 -359653.906250 101066.015625 0 0 0
-138621.734375 -359653.906250 101066.015625 0 0 0
-137918.125000 -359653.906250 101066.015625 0 0 0
-137214.500000 -359653.906250 101066.015625 0 0 0
-136510.890625 -359653.906250 101066.015625 0 0 0
-135807.281250 -359653.906250 101066.015625 0 0 0
-135103.671875 -359653.906250 101066.015625 0 0 0
-134400.062500 -359653.906250 101066.015625 0 0 0
-133696.453125 -359653.906250 101066.015625 0 0 0
-132992.843750 -359653.906250 101066.015625 0 0 0
-132289.218750 -359653.906250 101066.015625 0 0 0
-131585.609375 -359653.906250 101066.015625 0 0 0
-130882.000000 -359653.906250 101066.015625 0 0 0
-130178.390625 -359653.906250 101066.015625 0 0 0
-129474.781250 -359653.906250 101066.015625 0 0 0
-128771.171875 -359653.906250 101066.015625 0 0 0
-128067.554688 -359653.906250 101066.015625 0 0 0
-127363.945312 -359653.906250 101066.015625 0 0 0
-126660.335938 -359653.906250 101066.015625 0 0 0
-125956.726562 -359653.906250 101066.015625 1 1 1
-125253.109375 -359653.906250 101066.015625 3 4 3
-124549.500000 -359653.906250 101066.015625 9 11 8
-123845.890625 -359653.906250 101066.015625 17 20 16
-123142.273438 -359653.906250 101066.015625 26 31 27
-122438.664062 -359653.906250 101066.015625 34 41 37
-121735.054688 -359653.906250 101066.015625 39 46 44
-121031.445312 -359653.906250 101066.015625 39 47 46
-120327.828125 -359653.906250 101066.015625 34 41 41
-119624.218750 -359653.906250 101066.015625 27 34 32
-118920.609375 -359653.906250 101066.015625 23 30 27
-118217.000000 -359653.906250 101066.015625 25 33 28
-117513.382812 -359653.906250 101066.015625 30 38 34
-116809.773438 -359653.906250 101066.015625 34 41 39
-116106.164062 -359653.906250 101066.015625 30 37 37
-59562.605469 -185627.828125 52163.105469 23 30 31
-55611.605469 -174377.656250 49001.703125 23 32 33
-159026.468750 -358950.312500 101066.015625 0 0 0
-158322.859375 -358950.312500 101066.015625 0 0 0
-157619.234375 -358950.312500 101066.015625 0 0 0
-156915.625000 -358950.312500 101066.015625 0 0 0
-156212.015625 -358950.312500 101066.015625 0 0 0
-155508.406250 -358950.312500 101066.015625 0 0 0
-154804.796875 -358950.312500 101066.015625 0 0 0
-154101.187500 -358950.312500 101066.015625 0 0 0
-153397.578125 -358950.312500 101066.015625 0 0 0
-152693.953125 -358950.312500 101066.015625 0 0 0
-151990.343750 -358950.312500 101066.015625 0 0 0
-151286.734375 -358950.312500 101066.015625 0 0 0
-150583.125000 -358950.312500 101066.015625 0 0 0
-149879.515625 -358950.312500 101066.015625 0 0 0
-149175.906250 -358950.312500 101066.015625 0 0 0
-148472.296875 -358950.312500 101066.015625 0 0 0
-147768.671875 -358950.312500 101066.015625 0 0 0
-147065.062500 -358950.312500 101066.015625 0 0 0
-146361.453125 -358950.312500 101066.015625 0 0 0
-145657.843750 -358950.312500 101066.015625 0 0 0
-144954.234375 -358950.312500 101066.015625 0 0 0
-144250.625000 -358950.312500 101066.015625 0 0 0
-143547.015625 -358950.312500 101066.015625 0 0 0
-142843.406250 -358950.312500 101066.015625 0 0 0
-142139.781250 -358950.312500 101066.015625 0 0 0
-141436.171875 -358950.312500 101066.015625 0 0 0
-140732.562500 -358950.312500 101066.015625 0 0 0
-140028.953125 -358950.312500 101066.015625 0 0 0
-139325.343750 -358950.312500 101066.015625 0 0 0
-138621.734375 -358950.312500 101066.015625 0 0 0
-137918.125000 -358950.312500 101066.015625 0 0 0
-137214.500000 -358950.312500 101066.015625 0 0 0
-136510.890625 -358950.312500 101066.015625 0 0 0
-135807.281250 -358950.312500 101066.015625 0 0 0
-135103.671875 -358950.312500 101066.015625 0 0 0
-134400.062500 -358950.312500 101066.015625 0 0 0
-133696.453125 -358950.312500 101066.015625 0 0 0
-132992.843750 -358950.312500 101066.015625 0 0 0
-132289.218750 -358950.312500 101066.015625 0 0 0
-131585.609375 -358950.312500 101066.015625 0 0 0
-130882.000000 -358950.312500 101066.015625 0 0 0
-130178.390625 -358950.312500 101066.015625 0 0 0
-129474.781250 -358950.312500 101066.015625 0 0 0
-128771.171875 -358950.312500 101066.015625 0 0 0
-128067.554688 -358950.312500 101066.015625 0 0 0
-127363.945312 -358950.312500 101066.015625 1 1 1
-126660.335938 -358950.312500 101066.015625 4 6 4
-125956.726562 -358950.312500 101066.015625 11 14 11
-125253.109375 -358950.312500 101066.015625 20 25 21
-124549.500000 -358950.312500 101066.015625 29 36 32
-123845.890625 -358950.312500 101066.015625 36 44 41
-123142.273438 -358950.312500 101066.015625 37 46 44
-122438.664062 -358950.312500 101066.015625 32 41 39
-121735.054688 -358950.312500 101066.015625 25 33 30
-121031.445312 -358950.312500 101066.015625 20 27 23
-120327.828125 -358950.312500 101066.015625 17 24 19
-119624.218750 -358950.312500 101066.015625 21 29 24
-118920.609375 -358950.312500 101066.015625 33 42 39
-118217.000000 -358950.312500 101066.015625 48 59 57
-117513.382812 -358950.312500 101066.015625 57 68 69
-116809.773438 -358950.312500 101066.015625 52 63 64
-58053.082031 -179475.156250 50533.007812 34 45 47
-55952.750000 -174036.515625 49001.703125 22 32 34
-7168.683594 -22434.394531 6316.625977 15 25 26
-9939.154297 -22390.417969 6316.625977 0 0 0
-9895.178711 -22390.417969 6316.625977 0 0 0
-9851.202148 -22390.417969 6316.625977 0 0 0
-9807.226562 -22390.417969 6316.625977 0 0 0
-9763.250977 -22390.417969 6316.625977 0 0 0
-9719.275391 -22390.417969 6316.625977 0 0 0
-9675.299805 -22390.417969 6316.625977 0 0 0
-9631.324219 -22390.417969 6316.625977 0 0 0
-9587.348633 -22390.417969 6316.625977 0 0 0
-9543.372070 -22390.417969 6316.625977 0 0 0
-9499.396484 -22390.417969 6316.625977 0 0 0
-9455.420898 -22390.417969 6316.625977 0 0 0
-9411.445312 -22390.417969 6316.625977 0 0 0
-9367.469727 -22390.417969 6316.625977 0 0 0
-9323.494141 -22390.417969 6316.625977 0 0 0
-9279.518555 -22390.417969 6316.625977 0 0 0
-9235.541992 -22390.417969 6316.625977 0 0 0
-9191.566406 -22390.417969 6316.625977 0 0 0
-9147.590820 -22390.417969 6316.625977 0 0 0
-9103.615234 -22390.417969 6316.625977 0 0 0
-9059.639648 -22390.417969 6316.625977 0 0 0
-9015.664062 -22390.417969 6316.625977 0 0 0
-8971.688477 -22390.417969 6316.625977 0 0 0
-8927.712891 -22390.417969 6316.625977 0 0 0
-8883.736328 -22390.417969 6316.625977 0 0 0
-8839.760742 -22390.417969 6316.625977 0 0 0
-8795.785156 -22390.417969 6316.625977 0 0 0
-8751.809570 -22390.417969 6316.625977 0 0 0
-8707.833984 -22390.417969 6316.625977 0 0 0
-8487.955078 -22390.417969 6316.625977 0 0 0
-135103.671875 -358246.687500 101066.015625 0 0 0
-134400.062500 -358246.687500 101066.015625 0 0 0
-133696.453125 -358246.687500 101066.015625 0 0 0
-132992.843750 -358246.687500 101066.015625 0 0 0
-132289.218750 -358246.687500 101066.015625 0 0 0
-131585.609375 -358246.687500 101066.015625 0 0 0
-130882.000000 -358246.687500 101066.015625 0 0 0
-130178.390625 -358246.687500 101066.015625 0 0 0
-129474.781250 -358246.687500 101066.015625 0 0 0
-128771.171875 -358246.687500 101066.015625 1 1 1
-128067.554688 -358246.687500 101066.015625 5 6 5
-127363.945312 -358246.687500 101066.015625 12 16 12
-126660.335938 -358246.687500 101066.015625 22 28 23
-125956.726562 -358246.687500 101066.015625 31 38 34
-125253.109375 -358246.687500 101066.015625 34 43 40
-124549.500000 -358246.687500 101066.015625 31 40 38
-123845.890625 -358246.687500 101066.015625 26 34 31
-123142.273438 -358246.687500 101066.015625 21 28 25
-122438.664062 -358246.687500 101066.015625 20 27 23
-121735.054688 -358246.687500 101066.015625 23 31 26
-121031.445312 -358246.687500 101066.015625 26 36 32
-120327.828125 -358246.687500 101066.015625 34 47 43
-7476.513672 -22390.417969 6316.625977 52 66 65
-7432.538086 -22390.417969 6316.625977 62 77 77
-7388.562500 -22390.417969 6316.625977 61 74 76
-7344.586426 -22390.417969 6316.625977 50 62 66
-7300.610840 -22390.417969 6316.625977 39 50 53
-7256.635254 -22390.417969 6316.625977 33 41 43
-7212.659180 -22390.417969 6316.625977 26 33 33
-7168.683594 -22390.417969 6316.625977 15 21 20
-9939.154297 -22346.443359 6316.625977 0 0 0
-9895.178711 -22346.443359 6316.625977 0 0 0
-9851.202148 -22346.443359 6316.625977 0 0 0
-9807.226562 -22346.443359 6316.625977 0 0 0
-9763.250977 -22346.443359 6316.625977 0 0 0
-9719.275391 -22346.443359 6316.625977 0 0 0
-9675.299805 -22346.443359 6316.625977 0 0 0
-9631.324219 -22346.443359 6316.625977 0 0 0
-9587.348633 -22346.443359 6316.625977 0 0 0
-9543.372070 -22346.443359 6316.625977 0 0 0
-9499.396484 -22346.443359 6316.625977 0 0 0
-9455.420898 -22346.443359 6316.625977 0 0 0
-9411.445312 -22346.443359 6316.625977 0 0 0
-9367.469727 -22346.443359 6316.625977 0 0 0
-9323.494141 -22346.443359 6316.625977 0 0 0
-9279.518555 -22346.443359 6316.625977 0 0 0
-9235.541992 -22346.443359 6316.625977 0 0 0
-9191.566406 -22346.443359 6316.625977 0 0 0
-9147.590820 -22346.443359 6316.625977 0 0 0
-9103.615234 -22346.443359 6316.625977 0 0 0
-9059.639648 -22346.443359 6316.625977 0 0 0
-9015.664062 -22346.443359 6316.625977 0 0 0
-8971.688477 -22346.443359 6316.625977 0 0 0
-8927.712891 -22346.443359 6316.625977 0 0 0
-8883.736328 -22346.443359 6316.625977 0 0 0
-8839.760742 -22346.443359 6316.625977 0 0 0
-8795.785156 -22346.443359 6316.625977 0 0 0
-8751.809570 -22346.443359 6316.625977 0 0 0
-8487.955078 -22346.443359 6316.625977 0 0 0
-8443.979492 -22346.443359 6316.625977 0 0 0
-8400.003906 -22346.443359 6316.625977 0 0 0
-8356.028320 -22346.443359 6316.625977 0 0 0
-8312.052734 -22346.443359 6316.625977 0 0 0
-128771.171875 -357543.093750 101066.015625 13 16 13
-128067.554688 -357543.093750 101066.015625 24 30 26
-127363.945312 -357543.093750 101066.015625 32 39 36
-126660.335938 -357543.093750 101066.015625 32 41 38
-125956.726562 -357543.093750 101066.015625 28 35 32
-125253.109375 -357543.093750 101066.015625 22 29 25
-7784.343750 -22346.443359 6316.625977 20 26 22
-7740.368164 -22346.443359 6316.625977 24 30 28
-7696.392090 -22346.443359 6316.625977 33 42 43
-7652.416504 -22346.443359 6316.625977 45 56 59
-7608.440918 -22346.443359 6316.625977 43 56 57
-7564.465332 -22346.443359 6316.625977 45 61 61
-7520.489258 -22346.443359 6316.625977 67 84 86
-7476.513672 -22346.443359 6316.625977 64 79 83
-7432.538086 -22346.443359 6316.625977 45 56 59
-7388.562500 -22346.443359 6316.625977 32 41 42
-7344.586426 -22346.443359 6316.625977 26 34 34
-7300.610840 -22346.443359 6316.625977 23 29 28
-7256.635254 -22346.443359 6316.625977 19 23 21
-7212.659180 -22346.443359 6316.625977 16 20 16
-7168.683594 -22346.443359 6316.625977 13 18 12
-9939.154297 -22302.466797 6316.625977 0 0 0
-9895.178711 -22302.466797 6316.625977 0 0 0
-9851.202148 -22302.466797 6316.625977 0 0 0
-9807.226562 -22302.466797 6316.625977 0 0 0
-9763.250977 -22302.466797 6316.625977 0 0 0
-9719.275391 -22302.466797 6316.625977 0 0 0
-9675.299805 -22302.466797 6316.625977 0 0 0
-9631.324219 -22302.466797 6316.625977 0 0 0
-9587.348633 -22302.466797 6316.625977 0 0 0
-9543.372070 -22302.466797 6316.625977 0 0 0
-9499.396484 -22302.466797 6316.625977 0 0 0
-9455.420898 -22302.466797 6316.625977 0 0 0
-9411.445312 -22302.466797 6316.625977 0 0 0
-9367.469727 -22302.466797 6316.625977 0 0 0
-9323.494141 -22302.466797 6316.625977 0 0 0
-9279.518555 -22302.466797 6316.625977 0 0 0
-9235.541992 -22302.466797 6316.625977 0 0 0
-9191.566406 -22302.466797 6316.625977 0 0 0
-9147.590820 -22302.466797 6316.625977 0 0 0
-9103.615234 -22302.466797 6316.625977 0 0 0
-9059.639648 -22302.466797 6316.625977 0 0 0
-9015.664062 -22302.466797 6316.625977 0 0 0
-8971.688477 -22302.466797 6316.625977 0 0 0
-8927.712891 -22302.466797 6316.625977 0 0 0
-8883.736328 -22302.466797 6316.625977 0 0 0
-8839.760742 -22302.466797 6316.625977 0 0 0
-8795.785156 -22302.466797 6316.625977 0 0 0
-8751.809570 -22302.466797 6316.625977 0 0 0
-8531.930664 -22302.466797 6316.625977 0 0 0
-8487.955078 -22302.466797 6316.625977 0 0 0
-8443.979492 -22302.466797 6316.625977 0 0 0
-8400.003906 -22302.466797 6316.625977 0 0 0
-8356.028320 -22302.466797 6316.625977 0 0 0
-8312.052734 -22302.466797 6316.625977 0 0 0
-128771.171875 -356839.468750 101066.015625 33 42 38
-128067.554688 -356839.468750 101066.015625 33 42 39
-127363.945312 -356839.468750 101066.015625 26 33 30
-126660.335938 -356839.468750 101066.015625 20 26 22
-7872.295410 -22302.466797 6316.625977 21 26 21
-7828.319336 -22302.466797 6316.625977 28 34 31
-7784.343750 -22302.466797 6316.625977 35 44 44
-7740.368164 -22302.466797 6316.625977 48 61 63
-7696.392090 -22302.466797 6316.625977 66 82 85
-7652.416504 -22302.466797 6316.625977 60 75 81
-7608.440918 -22302.466797 6316.625977 35 47 52
-7564.465332 -22302.466797 6316.625977 48 61 64
-7520.489258 -22302.466797 6316.625977 50 61 63
-7476.513672 -22302.466797 6316.625977 28 35 35
-7432.538086 -22302.466797 6316.625977 19 23 22
-7388.562500 -22302.466797 6316.625977 17 21 17
-7344.586426 -22302.466797 6316.625977 16 19 15
-7300.610840 -22302.466797 6316.625977 16 18 13
-7256.635254 -22302.466797 6316.625977 15 17 12
-7212.659180 -22302.466797 6316.625977 15 17 11
-7168.683594 -22302.466797 6316.625977 13 17 11
-9939.154297 -22258.490234 6316.625977 0 0 0
-9895.178711 -22258.490234 6316.625977 0 0 0
-9851.202148 -22258.490234 6316.625977 0 0 0
-9807.226562 -22258.490234 6316.625977 0 0 0
-9763.250977 -22258.490234 6316.625977 0 0 0
-9719.275391 -22258.490234 6316.625977 0 0 0
-9675.299805 -22258.490234 6316.625977 0 0 0
-9631.324219 -22258.490234 6316.625977 0 0 0
-9587.348633 -22258.490234 6316.625977 0 0 0
-9543.372070 -22258.490234 6316.625977 0 0 0
-9499.396484 -22258.490234 6316.625977 0 0 0
-9455.420898 -22258.490234 6316.625977 0 0 0
-9411.445312 -22258.490234 6316.625977 0 0 0
-9367.469727 -22258.490234 6316.625977 0 0 0
-9323.494141 -22258.490234 6316.625977 0 0 0
-9279.518555 -22258.490234 6316.625977 0 0 0
-9235.541992 -22258.490234 6316.625977 0 0 0
-9191.566406 -22258.490234 6316.625977 0 0 0
-9147.590820 -22258.490234 6316.625977 0 0 0
-9103.615234 -22258.490234 6316.625977 0 0 0
-9059.639648 -22258.490234 6316.625977 0 0 0
-9015.664062 -22258.490234 6316.625977 0 0 0
-8971.688477 -22258.490234 6316.625977 0 0 0
-8927.712891 -22258.490234 6316.625977 0 0 0
-8883.736328 -22258.490234 6316.625977 0 0 0
-8839.760742 -22258.490234 6316.625977 0 0 0
-8795.785156 -22258.490234 6316.625977 0 0 0
-8751.809570 -22258.490234 6316.625977 0 0 0
-8575.906250 -22258.490234 6316.625977 0 0 0
-8531.930664 -22258.490234 6316.625977 0 0 0
-8487.955078 -22258.490234 6316.625977 0 0 0
-8443.979492 -22258.490234 6316.625977 0 0 0
-8400.003906 -22258.490234 6316.625977 0 0 0
-8356.028320 -22258.490234 6316.625977 0 0 0
-8312.052734 -22258.490234 6316.625977 0 1 0
-8268.076172 -22258.490234 6316.625977 3 4 3
-130178.390625 -356135.843750 101066.015625 33 42 39
-129474.781250 -356135.843750 101066.015625 32 41 40
-128771.171875 -356135.843750 101066.015625 23 30 29
-128067.554688 -356135.843750 101066.015625 14 18 16
-127363.945312 -356135.843750 101066.015625 12 15 11
-7916.270996 -22258.490234 6316.625977 23 28 23
-7872.295410 -22258.490234 6316.625977 37 45 41
-7828.319336 -22258.490234 6316.625977 49 60 59
-7784.343750 -22258.490234 6316.625977 60 76 75
-7740.368164 -22258.490234 6316.625977 70 89 89
-7696.392090 -22258.490234 6316.625977 65 83 85
-7652.416504 -22258.490234 6316.625977 33 45 50
-7608.440918 -22258.490234 6316.625977 16 24 27
-7564.465332 -22258.490234 6316.625977 20 27 25
-7520.489258 -22258.490234 6316.625977 19 22 18
-7476.513672 -22258.490234 6316.625977 16 16 13
-7432.538086 -22258.490234 6316.625977 15 16 12
-7388.562500 -22258.490234 6316.625977 15 16 11
-7344.586426 -22258.490234 6316.625977 15 17 11
-7300.610840 -22258.490234 6316.625977 16 17 11
-7256.635254 -22258.490234 6316.625977 15 17 11
-7212.659180 -22258.490234 6316.625977 14 17 11
-7168.683594 -22258.490234 6316.625977 12 17 12
-9939.154297 -22214.515625 6316.625977 0 0 0
-9895.178711 -22214.515625 6316.625977 0 0 0
-9851.202148 -22214.515625 6316.625977 0 0 0
-9807.226562 -22214.515625 6316.625977 0 0 0
-9763.250977 -22214.515625 6316.625977 0 0 0
-9719.275391 -22214.515625 6316.625977 0 0 0
-9675.299805 -22214.515625 6316.625977 0 0 0
-9631.324219 -22214.515625 6316.625977 0 0 0
-9587.348633 -22214.515625 6316.625977 0 0 0
-9543.372070 -22214.515625 6316.625977 0 0 0
-9499.396484 -22214.515625 6316.625977 0 0 0
-9455.420898 -22214.515625 6316.625977 0 0 0
-9411.445312 -22214.515625 6316.625977 0 0 0
-9367.469727 -22214.515625 6316.625977 0 0 0
-9323.494141 -22214.515625 6316.625977 0 0 0
-9279.518555 -22214.515625 6316.625977 0 0 0
-9235.541992 -22214.515625 6316.625977 0 0 0
-9191.566406 -22214.515625 6316.625977 0 0 0
-9147.590820 -22214.515625 6316.625977 0 0 0
-9103.615234 -22214.515625 6316.625977 0 0 0
-9059.639648 -22214.515625 6316.625977 0 0 0
-9015.664062 -22214.515625 6316.625977 0 0 0
-8971.688477 -22214.515625 6316.625977 0 0 0
-8927.712891 -22214.515625 6316.625977 0 0 0
-8883.736328 -22214.515625 6316.625977 0 0 0
-10286.267578 -25849.617188 7350.255859 0 0 0
-10722.481445 -27080.552734 7700.267578 0 0 0
-10668.873047 -27080.552734 7700.267578 0 0 0
-8575.906250 -22214.515625 6316.625977 0 0 0
-8531.930664 -22214.515625 6316.625977 0 0 0
-8487.955078 -22214.515625 6316.625977 0 0 0
-8443.979492 -22214.515625 6316.625977 0 0 0
-8400.003906 -22214.515625 6316.625977 0 0 0
-8356.028320 -22214.515625 6316.625977 2 2 2
-8312.052734 -22214.515625 6316.625977 9 11 9
-10265.254883 -27877.039062 7926.746094 34 43 42
-130178.390625 -355432.250000 101066.015625 22 29 29
-129474.781250 -355432.250000 101066.015625 9 13 13
-128771.171875 -355432.250000 101066.015625 3 4 4
-128067.554688 -355432.250000 101066.015625 1 2 1
-10897.450195 -30411.314453 8647.359375 3 3 3
-7916.270996 -22214.515625 6316.625977 22 26 24
-7872.295410 -22214.515625 6316.625977 52 62 61
-7828.319336 -22214.515625 6316.625977 61 75 75
-7784.343750 -22214.515625 6316.625977 55 70 72
-7740.368164 -22214.515625 6316.625977 41 56 59
-7696.392090 -22214.515625 6316.625977 28 36 40
-7652.416504 -22214.515625 6316.625977 16 20 23
-7608.440918 -22214.515625 6316.625977 14 18 17
-7564.465332 -22214.515625 6316.625977 14 18 13
-7520.489258 -22214.515625 6316.625977 14 16 11
-7476.513672 -22214.515625 6316.625977 14 15 11
-7432.538086 -22214.515625 6316.625977 14 16 11
-7388.562500 -22214.515625 6316.625977 15 16 11
-7344.586426 -22214.515625 6316.625977 15 17 11
-7300.610840 -22214.515625 6316.625977 15 17 11
-7256.635254 -22214.515625 6316.625977 13 16 11
-7212.659180 -22214.515625 6316.625977 12 16 11
-7168.683594 -22214.515625 6316.625977 13 18 12
-9939.154297 -22170.539062 6316.625977 0 0 0
-9895.178711 -22170.539062 6316.625977 0 0 0
-9851.202148 -22170.539062 6316.625977 0 0 0
-9807.226562 -22170.539062 6316.625977 0 0 0
-9367.469727 -22170.539062 6316.625977 0 0 0
-9323.494141 -22170.539062 6316.625977 0 0 0
-9279.518555 -22170.539062 6316.625977 0 0 0
-9235.541992 -22170.539062 6316.625977 0 0 0
-9191.566406 -22170.539062 6316.625977 0 0 0
-9147.590820 -22170.539062 6316.625977 0 0 0
-9103.615234 -22170.539062 6316.625977 0 0 0
-9059.639648 -22170.539062 6316.625977 0 0 0
-9015.664062 -22170.539062 6316.625977 0 0 0
-8971.688477 -22170.539062 6316.625977 0 0 0
-10436.047852 -25916.248047 7383.818359 0 0 0
-10933.830078 -27286.818359 7774.309082 0 0 0
-11147.678711 -27958.906250 7965.794434 0 0 0
-11372.328125 -28664.939453 8166.950684 0 0 0
-11489.554688 -29105.939453 8292.595703 0 0 0
-11550.287109 -29407.554688 8378.529297 0 0 0
-8663.858398 -22170.539062 6316.625977 0 0 0
-8619.882812 -22170.539062 6316.625977 0 0 0
-8575.906250 -22170.539062 6316.625977 0 0 0
-8531.930664 -22170.539062 6316.625977 0 0 0
-8487.955078 -22170.539062 6316.625977 0 0 0
-8443.979492 -22170.539062 6316.625977 0 0 0
-8400.003906 -22170.539062 6316.625977 4 5 4
-8356.028320 -22170.539062 6316.625977 17 21 18
-10265.254883 -27821.853516 7926.746094 11 13 14
-11079.011719 -30189.671875 8601.363281 3 3 4
-11770.434570 -32248.056641 9187.819336 0 0 0
-11773.364258 -32432.332031 9240.321289 0 0 0
-11709.034180 -32432.332031 9240.321289 0 0 0
-10956.038086 -30514.291016 8693.850586 3 3 3
-7916.270996 -22170.539062 6316.625977 35 39 39
-7872.295410 -22170.539062 6316.625977 67 76 77
-7828.319336 -22170.539062 6316.625977 52 64 68
-7784.343750 -22170.539062 6316.625977 28 40 47
-7740.368164 -22170.539062 6316.625977 15 23 29
-7696.392090 -22170.539062 6316.625977 14 18 22
-7652.416504 -22170.539062 6316.625977 14 17 17
-7608.440918 -22170.539062 6316.625977 15 18 15
-7564.465332 -22170.539062 6316.625977 16 17 13
-7432.538086 -22170.539062 6316.625977 15 17 12
-7388.562500 -22170.539062 6316.625977 15 17 11
-8319.531250 -25113.531250 7155.116211 15 18 11
-9439.173828 -28664.939453 8166.950684 14 18 11
-7256.635254 -22170.539062 6316.625977 12 17 11
-7212.659180 -22170.539062 6316.625977 12 17 11
-7168.683594 -22170.539062 6316.625977 13 18 12
-9939.154297 -22126.564453 6316.625977 0 0 0
-9895.178711 -22126.564453 6316.625977 0 0 0
-9851.202148 -22126.564453 6316.625977 0 0 0
-9807.226562 -22126.564453 6316.625977 0 0 0
-9367.469727 -22126.564453 6316.625977 0 0 0
-9323.494141 -22126.564453 6316.625977 0 0 0
-9279.518555 -22126.564453 6316.625977 0 0 0
-9235.541992 -22126.564453 6316.625977 0 0 0
-9191.566406 -22126.564453 6316.625977 0 0 0
-9147.590820 -22126.564453 6316.625977 0 0 0
-9103.615234 -22126.564453 6316.625977 0 0 0
-10436.047852 -25864.841797 7383.818359 0 0 0
-11203.135742 -27903.449219 7965.794434 0 0 0
-11725.279297 -29349.224609 8378.529297 0 0 0
-11789.115234 -29656.546875 8466.262695 0 0 0
-11730.173828 -29656.546875 8466.262695 0 0 0
-11732.660156 -29812.632812 8510.822266 0 0 0
-8663.858398 -22126.564453 6316.625977 0 0 0
-8619.882812 -22126.564453 6316.625977 0 0 0
-8575.906250 -22126.564453 6316.625977 0 0 0
-8531.930664 -22126.564453 6316.625977 0 0 0
-8487.955078 -22126.564453 6316.625977 1 1 1
-8443.979492 -22126.564453 6316.625977 6 7 6
-8400.003906 -22126.564453 6316.625977 20 25 22
-10681.303711 -29048.207031 8292.595703 0 0 0
-11019.129883 -30129.789062 8601.363281 0 0 0
-11706.469727 -32184.093750 9187.819336 0 0 0
-11709.034180 -32368.001953 9240.321289 0 0 0
-11711.626953 -32554.025391 9293.426758 12 13 13
-11646.927734 -32554.025391 9293.426758 55 62 62
-11582.227539 -32554.025391 9293.426758 73 86 87
-7828.319336 -22126.564453 6316.625977 65 82 84
-7784.343750 -22126.564453 6316.625977 43 59 63
-7740.368164 -22126.564453 6316.625977 23 34 40
-7696.392090 -22126.564453 6316.625977 22 30 33
-7652.416504 -22126.564453 6316.625977 16 22 22
-7608.440918 -22126.564453 6316.625977 17 20 18
-7564.465332 -22126.564453 6316.625977 16 19 15
-7734.673828 -23026.017578 6573.399414 13 18 11
-8369.344727 -25063.718750 7155.116211 13 18 11
-9691.825195 -29197.939453 8335.341797 13 18 11
-9785.112305 -29656.546875 8466.262695 13 18 11
-10041.614258 -30618.380859 8740.844727 13 18 11
-7212.659180 -22126.564453 6316.625977 13 18 12
-7168.683594 -22126.564453 6316.625977 13 18 12
-9939.154297 -22082.587891 6316.625977 0 0 0
-9895.178711 -22082.587891 6316.625977 0 0 0
-9851.202148 -22082.587891 6316.625977 0 0 0
-9807.226562 -22082.587891 6316.625977 0 0 0
-9763.250977 -22082.587891 6316.625977 0 0 0
-9719.275391 -22082.587891 6316.625977 0 0 0
-9675.299805 -22082.587891 6316.625977 0 0 0
-9631.324219 -22082.587891 6316.625977 0 0 0
-9587.348633 -22082.587891 6316.625977 0 0 0
-9543.372070 -22082.587891 6316.625977 0 0 0
-9499.396484 -22082.587891 6316.625977 0 0 0
-9455.420898 -22082.587891 6316.625977 0 0 0
-9411.445312 -22082.587891 6316.625977 0 0 0
-9367.469727 -22082.587891 6316.625977 0 0 0
-9323.494141 -22082.587891 6316.625977 0 0 0
-9279.518555 -22082.587891 6316.625977 0 0 0
-9235.541992 -22082.587891 6316.625977 0 0 0
-9191.566406 -22082.587891 6316.625977 0 0 0
-9147.590820 -22082.587891 6316.625977 0 0 0
-9103.615234 -22082.587891 6316.625977 0 0 0
-11725.279297 -29290.894531 8378.529297 0 0 0
-11789.115234 -29597.605469 8466.262695 0 0 0
-11730.173828 -29597.605469 8466.262695 0 0 0
-8707.833984 -22082.587891 6316.625977 0 0 0
-8663.858398 -22082.587891 6316.625977 0 0 0
-8619.882812 -22082.587891 6316.625977 0 0 0
-8575.906250 -22082.587891 6316.625977 0 0 0
-8531.930664 -22082.587891 6316.625977 1 2 1
-8487.955078 -22082.587891 6316.625977 9 11 9
-8443.979492 -22082.587891 6316.625977 22 28 23
-8400.003906 -22082.587891 6316.625977 24 30 27
-11507.482422 -31232.832031 8934.012695 0 0 0
-11837.694336 -32303.671875 9240.321289 0 0 0
-13123.176758 -36007.277344 10299.721680 0 0 0
-13752.220703 -37940.554688 10852.726562 3 4 4
-13676.665039 -37940.554688 10852.726562 29 34 33
-13601.109375 -37940.554688 10852.726562 63 76 75
-13616.943359 -38196.910156 10926.055664 76 94 93
-11584.102539 -32677.125000 9347.145508 80 100 101
-7652.416504 -22082.587891 6316.625977 26 37 39
-11066.823242 -32120.128906 9187.819336 27 35 36
-11258.739258 -32867.109375 9401.490234 21 26 26
-12032.783203 -35332.140625 10106.601562 14 18 16
-13199.914062 -38987.191406 11152.112305 12 17 13
-13305.802734 -39532.464844 11308.085938 11 18 12
-13227.076172 -39532.464844 11308.085938 12 18 12
-10995.404297 -33059.312500 9456.469727 13 18 12
